100.0	 139.32586173410758	 13.722399646138484
100.0	 135.3483686956458	 26.9224644382257
100.0	 131.10082599531262	 39.76900078386134
100.0	 127.49537548655756	 52.81031366638239
100.0	 126.11474080181478	 67.40973336611766
100.0	 121.3945633961716	 81.11325402086192
100.0	 118.27059936449876	 97.06217247703776
100.0	 111.01576464628796	 111.01576464628796
100.0	 110.38443144447432	 134.50381888511623
100.0	 105.00277404070484	 157.14775672518104
100.0	 90.50817347059157	 169.32888275488415
100.0	 75.77131960828778	 182.92814743723477
100.0	 52.54152658305768	 173.20620076752982
100.0	 32.77517409870956	 164.77192710774273
100.0	 15.388691031741041	 156.2440020875349
100.0	 9.123618653647781e-15	 149.0
100.0	 -14.114468207456733	 143.30660064079635
100.0	 -27.312645082257948	 137.30993925645225
100.0	 -39.47871610660685	 130.1438856595804
100.0	 -52.0449468016522	 125.64761642153499
100.0	 -61.752972524205695	 115.53168562963451
100.0	 -58.89044470007781	 88.13577890406981
100.0	 -44.40752989145518	 54.110731735391596
100.0	 -39.597979746446654	 39.59797974644666
100.0	 -40.196543574862325	 32.988450776509566
100.0	 -32.42731487979927	 21.667239087764486
100.0	 -24.69379540175394	 13.199108631127938
100.0	 -20.325349715248308	 8.419035512031977
100.0	 -14.354105035983132	 4.354270158816936
100.0	 -10.788638084435535	 2.145993542177415
100.0	 -6.966293086705377	 0.6861199823069257
100.0	 -6.0	 7.347880794884119e-16
100.0	 -4.975923633360985	 -0.49008570164780296
100.0	 -1.9615705608064609	 -0.3901806440322567
100.0	 -1.9138806714644179	 -0.5805693545089242
100.0	 -0.9238795325112868	 -0.38268343236508967
100.0	 -2.6457637930450653	 -1.4141902104779929
100.0	 -4.157348061512727	 -2.77785116509801
100.0	 -3.8650522668136853	 -3.1719664208182263
100.0	 -9.899494936611667	 -9.899494936611664
100.0	 -8.881505978291043	 -10.822146347078313
100.0	 -11.111404660392044	 -16.629392246050905
100.0	 -12.256315157475944	 -22.92995287305723
100.0	 -15.307337294603613	 -36.95518130045146
100.0	 -13.643379830959734	 -44.976195779413814
100.0	 -10.925058032903205	 -54.9239757025809
100.0	 -7.253268384387473	 -73.64366977374257
100.0	 -1.9104490066698708e-14	 -104.0
100.0	 10.97791971691073	 -111.46068938728605
100.0	 21.85011606580637	 -109.84795140516181
100.0	 32.80216852975421	 -108.1342579377396
100.0	 43.24322785725517	 -104.39838717377539
100.0	 54.21062473498972	 -101.42094540006083
100.0	 64.44614703027382	 -96.45047502709528
100.0	 75.49280081547383	 -91.9882439501657
100.0	 89.80256121069151	 -89.80256121069155
100.0	 104.35641120396943	 -85.6430933620922
100.0	 121.3945633961716	 -81.11325402086192
100.0	 141.10740229573676	 -75.42347789215967
100.0	 157.0595205269187	 -65.05618350206537
100.0	 161.7229167387433	 -49.058110456004165
100.0	 155.94485958411363	 -31.019361200564468
100.0	 150.27289372750172	 -14.800588189763637
100.0	 142.0	 -3.477996909578483e-14
200.0	 139.32586173410758	 13.722399646138403
200.0	 134.36758341524256	 26.72737411620957
200.0	 126.31612431665158	 38.317577397588984
200.0	 127.49537548655756	 52.81031366638241
200.0	 122.58705574442135	 65.52414641881366
200.0	 119.73162417156657	 80.00211355482267
200.0	 118.27059936449874	 97.06217247703776
200.0	 113.13708498984764	 113.13708498984758
200.0	 107.84685830781982	 131.41177707166523
200.0	 101.66935264258721	 152.1589390513658
200.0	 93.3365538915476	 174.62041034097425
200.0	 76.154003040653	 183.85202696974602
200.0	 54.86380400109342	 180.86172345338747
200.0	 34.335896674838665	 172.61820935096853
200.0	 16.56489671569574	 168.18621880760128
200.0	 4.9292033665680967e-14	 161.0
200.0	 -15.290673891411355	 155.24881736086272
200.0	 -28.87336765838684	 145.15622149967814
200.0	 -42.09127820189711	 138.75634868117027
200.0	 -55.10641426057295	 133.03865268162528
200.0	 -65.05274968198765	 121.70513448007301
200.0	 -63.8905767972542	 95.61900541479274
200.0	 -49.4826761647643	 60.29481536229353
200.0	 -40.30508652763316	 40.30508652763326
200.0	 -38.65052266813686	 31.71966420818227
200.0	 -32.42731487979926	 21.66723908776449
200.0	 -26.457637930450645	 14.141902104779941
200.0	 -21.249229247759587	 8.80171894439708
200.0	 -16.267985707447544	 4.934839513325879
200.0	 -12.750208645241997	 2.5361741862096636
200.0	 -9.95184726672197	 0.9801714032956064
200.0	 -9.0	 3.3065463576978533e-15
200.0	 -4.975923633360985	 -0.49008570164779947
200.0	 -2.942355841209692	 -0.5852709660483817
200.0	 -0.9569403357322087	 -0.2902846772544628
200.0	 -2.77163859753386	 -1.1480502970952695
200.0	 -1.7638425286967103	 -0.9427934736519948
200.0	 -3.3258784492101823	 -2.222280932078407
200.0	 -4.638062720176425	 -3.806359704981869
200.0	 -8.485281374238566	 -8.485281374238575
200.0	 -8.24711269412739	 -10.049135893715583
200.0	 -11.111404660392047	 -16.6293922460509
200.0	 -11.313521683823954	 -21.166110344360515
200.0	 -15.307337294603622	 -36.95518130045146
200.0	 -14.804518539977638	 -48.80395712234263
200.0	 -10.729967710887042	 -53.94319042217768
200.0	 -7.351285524717052	 -74.63885450041477
200.0	 -4.200538521075421e-14	 -98.0
200.0	 10.487834015262903	 -106.48476575392507
200.0	 20.679574133709483	 -103.96323972274244
200.0	 31.64102982073643	 -104.30649659481075
200.0	 40.56444383069952	 -97.9312304461964
200.0	 50.91084757720772	 -95.24749654962235
200.0	 60.001585166116975	 -89.79871812867492
200.0	 72.32083439465549	 -88.12319168335208
200.0	 83.4386001800125	 -83.43860018001271
200.0	 98.17232757706759	 -80.56794708878297
200.0	 113.91133688544868	 -76.11312192368553
200.0	 135.81587470964664	 -72.59509747120372
200.0	 150.5923637993397	 -62.37739947550977
200.0	 161.72291673874324	 -49.05811045600434
200.0	 160.8487859861298	 -31.994812810645005
200.0	 155.24881736086272	 -15.290673891411478
200.0	 148.0	 -7.249909050952331e-14
300.0	 140.32104646077977	 13.820416786467929
300.0	 136.32915397604907	 27.11755476024167
300.0	 131.10082599531262	 39.76900078386138
300.0	 125.64761642153499	 52.0449468016522
300.0	 123.46897700876974	 65.99554315563962
300.0	 119.73162417156658	 80.00211355482263
300.0	 115.17855755104792	 94.52459934038306
300.0	 111.72287142747446	 111.72287142747456
300.0	 105.30928517116516	 128.31973525821434
300.0	 100.00264194352845	 149.6645302144581
300.0	 88.62258652328767	 165.8011976974907
300.0	 71.17911841990687	 171.84159304709928
300.0	 50.50953384227667	 166.50761841740427
300.0	 32.38499345467727	 162.81035654693625
300.0	 15.290673891411487	 155.24881736086272
300.0	 8.04592947039811e-14	 146.0
300.0	 -14.1144682074566	 143.30660064079635
300.0	 -26.922464438225532	 135.34836869564583
300.0	 -38.60786207484352	 127.27306465238378
300.0	 -50.89689650455693	 122.87597782400115
300.0	 -60.81017905055364	 113.76784310093782
300.0	 -65.00171726329337	 97.28194463939785
300.0	 -52.02024930141886	 63.38685717574449
300.0	 -41.71930009000624	 41.719300090006364
300.0	 -35.5584808546859	 29.182091071527694
300.0	 -33.2587844921018	 22.2228093207841
300.0	 -24.69379540175393	 13.19910863112795
300.0	 -23.09698831278216	 9.567085809127269
300.0	 -17.224926043179753	 5.225124190580346
300.0	 -10.788638084435535	 2.1459935421774103
300.0	 -9.951847266721968	 0.9801714032956088
300.0	 -7.0	 4.2862637970157365e-15
300.0	 -3.9807389066887877	 -0.39206856131823864
300.0	 -4.903926402016153	 -0.975451610080635
300.0	 -4.784701678661047	 -1.451423386272304
300.0	 -1.847759065022575	 -0.7653668647301759
300.0	 -2.6457637930450684	 -1.4141902104779869
300.0	 -2.494408836907634	 -1.6667106990588088
300.0	 -4.6380627201764195	 -3.8063597049818756
300.0	 -7.071067811865474	 -7.071067811865477
300.0	 -7.612719409963747	 -9.276125440352843
300.0	 -10.000264194352848	 -14.96645302144581
300.0	 -11.784918420649957	 -22.048031608708868
300.0	 -13.393920132778177	 -32.33578363789502
300.0	 -13.643379830959795	 -44.9761957794138
300.0	 -10.339787066854889	 -51.98161986137119
300.0	 -6.469131261751138	 -65.68219196036499
300.0	 -2.4989108305099204e-13	 -102.0
300.0	 11.075936857240434	 -112.45587411395825
300.0	 22.045206387822542	 -110.82873668556502
300.0	 33.38273788426318	 -110.04813860920402
300.0	 43.62591128962021	 -105.3222667062867
300.0	 52.79643452451168	 -98.7751816070158
300.0	 65.55728749631298	 -98.1134142517004
300.0	 75.4928008154737	 -91.9882439501658
300.0	 91.92388155425103	 -91.92388155425132
300.0	 108.99447392414574	 -89.44945306707423
300.0	 126.38338106998668	 -84.44667541897982
300.0	 141.10740229573688	 -75.4234778921595
300.0	 159.83115912445265	 -66.20423379916043
300.0	 162.6798570744755	 -49.348395133258556
300.0	 160.8487859861298	 -31.994812810645048
300.0	 149.27770900082953	 -14.702571049434148
300.0	 142.0	 -1.0433990728735449e-13
400.0	 136.340307554091	 13.428348225149657
400.0	 134.36758341524262	 26.727374116209383
400.0	 131.10082599531268	 39.76900078386112
400.0	 123.79985735651253	 51.27957993692177
400.0	 125.23281953746657	 66.93833662929137
400.0	 122.22603300847409	 81.66882425388162
400.0	 118.27059936449871	 97.0621724770378
400.0	 113.1370849898476	 113.13708498984761
400.0	 105.94367845532884	 129.09274571157707
400.0	 102.22492287560688	 152.99040866366826
400.0	 91.45096694424369	 171.0927252835808
400.0	 74.24058587882763	 179.23262930718954
400.0	 52.83181126031243	 174.16314110326192
400.0	 33.94571603080664	 170.65663879016205
400.0	 15.682742452730052	 159.22955626755146
400.0	 -1.509718086729885e-13	 154.0
400.0	 -14.506536768775064	 147.28733954748512
400.0	 -27.702825726290257	 139.27150981725873
400.0	 -39.478716106606875	 130.1438856595804
400.0	 -52.81031366638234	 127.49537548655759
400.0	 -62.695765997857606	 117.29552815833127
400.0	 -67.22399819537176	 100.60782308860804
400.0	 -53.28903586974613	 64.93287808246998
400.0	 -42.42640687119278	 42.426406871192924
400.0	 -36.33149130804858	 29.81648435569141
400.0	 -34.0902541044043	 22.77837955380377
400.0	 -26.457637930450662	 14.141902104779907
400.0	 -22.173108780270887	 9.184402376762144
400.0	 -18.18186637891197	 5.515408867834783
400.0	 -14.711779206048456	 2.9263548302419267
400.0	 -10.947031993394164	 1.0781885436251724
400.0	 -6.0	 5.143516556418883e-15
400.0	 -5.971108360033182	 -0.5881028419773564
400.0	 -4.903926402016154	 -0.9754516100806339
400.0	 -3.8277613429288375	 -1.1611387090178422
400.0	 -0.9238795325112876	 -0.38268343236508773
400.0	 -2.645763793045069	 -1.4141902104779862
400.0	 -4.988817673815269	 -3.3334213981176166
400.0	 -5.411073173539157	 -4.44075298914552
400.0	 -5.656854249492381	 -5.656854249492381
400.0	 -8.247112694127395	 -10.049135893715578
400.0	 -10.555834427372451	 -15.797922633748353
400.0	 -12.256315157475962	 -22.92995287305722
400.0	 -14.541970429873459	 -35.10742223542888
400.0	 -13.643379830959807	 -44.97619577941379
400.0	 -10.339787066854903	 -51.98161986137119
400.0	 -7.057234103728533	 -71.65330032039816
400.0	 -2.8295840356988037e-13	 -105.0
400.0	 10.879902576581284	 -110.46550466061385
400.0	 21.850116065806386	 -109.84795140516181
400.0	 33.092453207008695	 -109.09119827347182
400.0	 42.47786099252492	 -102.55062810875285
400.0	 52.32503778768566	 -97.89326034266745
400.0	 64.44614703027375	 -96.45047502709532
400.0	 74.22401424714639	 -90.44222304344034
400.0	 87.68124086713173	 -87.68124086713205
400.0	 102.81039029724383	 -84.37430679376507
400.0	 118.06868494696121	 -78.89097308878381
400.0	 136.69779597399508	 -73.06649420802954
400.0	 153.36400239687362	 -63.52544977260485
400.0	 158.85209573154665	 -48.18725642424074
400.0	 158.88721542532332	 -31.60463216661283
400.0	 149.27770900082953	 -14.702571049434185
400.0	 144.0	 -1.410793112617751e-13
500.0	 138.33067700743538	 13.624382505808741
500.0	 134.36758341524262	 26.72737411620935
500.0	 128.23000498811606	 38.8981467520977
500.0	 124.72373688902383	 51.662263369286826
500.0	 122.58705574442152	 65.52414641881334
500.0	 119.73162417156647	 80.0021135548228
500.0	 116.72457845777328	 95.7933859087105
500.0	 110.30865786510142	 110.30865786510141
500.0	 105.3092851711652	 128.31973525821428
500.0	 99.44707171050891	 148.8330606021555
500.0	 91.92236368106974	 171.97464654792913
500.0	 75.00595274355786	 181.0803883722121
500.0	 54.86380400109372	 180.86172345338738
500.0	 34.140806352822814	 171.63742407056526
500.0	 16.466879575366598	 167.19103408092903
500.0	 -1.1987135080037504e-13	 163.0
500.0	 -15.290673891411515	 155.24881736086272
500.0	 -29.653728946451505	 149.079362621291
500.0	 -42.67184755640593	 140.67022935263472
500.0	 -55.48909769293794	 133.96253221413662
500.0	 -65.52414641881356	 122.58705574442142
500.0	 -66.11285772933255	 98.94488386400296
500.0	 -50.75146273309154	 61.840836269019036
500.0	 -41.012193308819676	 41.01219330881984
500.0	 -35.55848085468583	 29.182091071527775
500.0	 -35.753193329009385	 23.88952001984299
500.0	 -27.339559194799012	 14.61329884160591
500.0	 -21.249229247759597	 8.80171894439706
500.0	 -19.138806714644176	 5.805693545089249
500.0	 -14.711779206048455	 2.92635483024193
500.0	 -11.942216720066362	 1.1762056839547363
500.0	 -9.0	 9.919639073093561e-15
500.0	 -7.961477813377576	 -0.7841371226364734
500.0	 -3.923141121612923	 -0.7803612880645061
500.0	 -1.913880671464419	 -0.5805693545089207
500.0	 -0.9238795325112877	 -0.3826834323650875
500.0	 -1.7638425286967128	 -0.9427934736519904
500.0	 -4.98881767381527	 -3.3334213981176157
500.0	 -4.638062720176421	 -3.8063597049818734
500.0	 -6.363961030678929	 -6.363961030678926
500.0	 -8.247112694127397	 -10.049135893715576
500.0	 -8.333553495294044	 -12.47204418453817
500.0	 -10.370728210171972	 -19.402267815663798
500.0	 -14.159286997508376	 -34.18354270291759
500.0	 -13.06281047645089	 -43.062315107949374
500.0	 -9.754516100806525	 -49.0392640201615
500.0	 -6.469131261751171	 -65.68219196036497
500.0	 -2.8515781596325287e-13	 -97.0
500.0	 10.585851155592575	 -107.47995048059725
500.0	 21.459935421774105	 -107.88638084435534
500.0	 31.641029820736357	 -104.30649659481077
500.0	 40.564443830699446	 -97.93123044619642
500.0	 51.853641050859636	 -97.01133907831911
500.0	 60.00158516611692	 -89.79871812867496
500.0	 73.58962096298272	 -89.66921259007762
500.0	 82.73149339882589	 -82.73149339882623
500.0	 99.71834848379287	 -81.83673365711051
500.0	 116.40574572235612	 -77.77983262274464
500.0	 134.05203218095	 -71.65230399755158
500.0	 149.66848426682847	 -61.99471604314453
500.0	 159.80903606727887	 -48.47754110149525
500.0	 160.84878598612977	 -31.994812810645122
500.0	 157.2391868142071	 -15.486708172070715
500.0	 151.0	 -1.8492166667125035e-13
600.0	 141.316231187452	 13.918433926797386
600.0	 128.48287173282324	 25.55683218411256
600.0	 125.35918398091944	 38.02729272033429
600.0	 140.42968894171574	 58.16788171949328
600.0	 134.05203218095016	 71.65230399755126
600.0	 129.70925951919733	 86.66895635105752
600.0	 126.00070389812613	 103.40610531867422
600.0	 118.0868324581539	 118.08683245815298
600.0	 112.28761129696535	 136.82285024520436
600.0	 107.78062520580357	 161.30510478669328
600.0	 99.46471147028576	 186.08538677750278
600.0	 81.12888766139866	 195.86246089239296
600.0	 59.21807415991072	 195.2158284893705
600.0	 36.481890217015774	 183.40684743540413
600.0	 17.152999557673578	 174.1573271676344
600.0	 -8.534311985142216e-14	 174.0
600.0	 -16.466879575365613	 167.19103408092914
600.0	 -31.799722488628877	 159.8680007057266
600.0	 -45.574694328949974	 150.23963270995696
600.0	 -58.55056515185862	 141.35356847422693
600.0	 -68.35252683976906	 127.8785833305118
600.0	 -62.77943633121491	 93.95606619018771
600.0	 -46.94510302810986	 57.20277354884246
600.0	 -38.89087296526002	 38.89087296526019
600.0	 -36.33149130804866	 29.8164843556913
600.0	 -35.75319332900938	 23.889520019842998
600.0	 -25.5757166661023	 13.670505367953924
600.0	 -20.32534971524828	 8.419035512032048
600.0	 -18.181866378911966	 5.515408867834791
600.0	 -12.750208645241985	 2.5361741862097213
600.0	 -11.942216720066362	 1.1762056839547392
600.0	 -8.0	 3.919860126290071e-14
600.0	 -6.966293086705379	 -0.6861199823069125
600.0	 -2.9423558412096904	 -0.5852709660483894
600.0	 -1.9138806714644192	 -0.5805693545089202
600.0	 -3.6955181300451456	 -1.5307337294603622
600.0	 -1.763842528696713	 -0.94279347365199
600.0	 -2.4944088369076356	 -1.6667106990588072
600.0	 -6.957094080264654	 -5.709539557472784
600.0	 -5.656854249492383	 -5.656854249492377
600.0	 -8.247112694127436	 -10.049135893715544
600.0	 -9.444693961333254	 -14.134983409143258
600.0	 -9.899331473345912	 -18.520346551315477
600.0	 -13.3939201327782	 -32.33578363789501
600.0	 -13.64337983095967	 -44.976195779413835
600.0	 -9.559425778790406	 -48.05847873975827
600.0	 -6.469131261750953	 -65.682191960365
600.0	 -3.0573126320829185e-13	 -96.0
600.0	 10.585851155592549	 -107.47995048059727
600.0	 21.069754777741444	 -105.92481028354896
600.0	 32.22159917524526	 -106.22037726627521
600.0	 41.32981069542924	 -99.77898951121917
600.0	 50.439450840381625	 -94.36557528527405
600.0	 60.001585166117216	 -89.79871812867476
600.0	 69.78326125800083	 -85.0311498699012
600.0	 80.61017305526651	 -80.61017305526632
600.0	 93.53426485689096	 -76.76158738380136
600.0	 107.25957998702837	 -71.66856005952863
600.0	 126.9966620661629	 -67.88113010294408
600.0	 143.20132753924943	 -59.31593201658893
600.0	 155.98127472434984	 -47.316402392478
600.0	 155.94485958411363	 -31.019361200564518
600.0	 152.26326318084605	 -14.996622470423485
600.0	 145.0	 -2.1308854305163944e-13
700.0	 137.33549228076313	 13.526365365479602
700.0	 134.36758341524262	 26.727374116209283
700.0	 132.05776633104477	 40.05928546111595
700.0	 130.26701408409158	 53.95836396347729
700.0	 125.23281953746638	 66.93833662929171
700.0	 124.72044184538207	 83.3355349529399
700.0	 121.36264117794973	 99.5997456136923
700.0	 115.96551211459428	 115.96551211459331
700.0	 112.2876112969654	 136.82285024520434
700.0	 103.89163357466637	 155.48481750057547
700.0	 87.20839631280982	 163.15543390444554
700.0	 66.96960066389045	 161.6789181894753
700.0	 47.89697174698665	 157.89515539581436
700.0	 30.043909590483615	 151.04093318209752
700.0	 14.016451067127589	 142.31141591412413
700.0	 -3.41312193247822e-14	 139.0
700.0	 -13.232313944490192	 134.34993810074664
700.0	 -25.361741862096622	 127.50208645241997
700.0	 -36.8661540113162	 121.53142263799069
700.0	 -47.83542904563609	 115.4849415639109
700.0	 -56.096211682293195	 104.94863045745453
700.0	 -50.55689120478367	 75.6637347195317
700.0	 -40.60117018647338	 49.472669015215104
700.0	 -33.9411254969542	 33.94112549695436
700.0	 -33.23944949459771	 27.278911219036733
700.0	 -29.932906042891563	 20.000528388705774
700.0	 -22.048031608708875	 11.784918420649939
700.0	 -21.249229247759562	 8.801718944397145
700.0	 -14.35410503598313	 4.354270158816944
700.0	 -10.788638084435526	 2.145993542177459
700.0	 -6.966293086705377	 0.6861199823069329
700.0	 -6.0	 -1.176403703945365e-14
700.0	 -2.985554180016591	 -0.2940514209886761
700.0	 -3.923141121612921	 -0.7803612880645181
700.0	 -1.9138806714644192	 -0.5805693545089198
700.0	 -0.9238795325112865	 -0.38268343236509034
700.0	 -1.7638425286967132	 -0.9427934736519895
700.0	 -4.157348061512726	 -2.777851165098011
700.0	 -6.1840836269019155	 -5.07514627330914
700.0	 -7.778174593052028	 -7.778174593052017
700.0	 -10.150292546618385	 -12.368167253803744
700.0	 -12.778115359450878	 -19.123801082958522
700.0	 -15.084695578431873	 -28.221480459147386
700.0	 -16.45538759169894	 -39.726819897985294
700.0	 -13.062810476450757	 -43.06231510794941
700.0	 -11.510328998951728	 -57.866331543790565
700.0	 -8.527491208671732	 -86.58107122048114
700.0	 -3.909778220804062e-13	 -114.0
700.0	 11.468005418558567	 -116.43661302064704
700.0	 23.02065799790266	 -115.73266308758129
700.0	 34.25359191602646	 -112.91895961640068
700.0	 45.92201188381024	 -110.86554390135464
700.0	 56.56760841911955	 -105.83055172180269
700.0	 69.44627912745045	 -103.93370153781804
700.0	 81.83673365711006	 -99.71834848379325
700.0	 96.87362902255711	 -96.87362902255691
700.0	 115.95156800441026	 -95.15899262454715
700.0	 132.2036683561047	 -88.33566705011671
700.0	 149.9266149392201	 -80.13744526042014
700.0	 154.28788192938487	 -63.90813320497005
700.0	 154.06739405288542	 -46.735833037969094
700.0	 149.07936262129098	 -29.65372894645165
700.0	 150.27289372750164	 -14.80058818976439
700.0	 146.0	 -2.50317805745719e-13
800.0	 134.34993810074656	 13.232313944490883
800.0	 134.36758341524262	 26.72737411620925
800.0	 132.05776633104477	 40.05928546111592
800.0	 127.49537548655773	 52.810313666382
800.0	 125.2328195374664	 66.93833662929168
800.0	 122.22603300847446	 81.66882425388107
800.0	 120.58963072458702	 98.96535232952863
800.0	 111.72287142747501	 111.722871427474
800.0	 107.84685830781989	 131.41177707166517
800.0	 98.89150147748994	 148.00159098985256
800.0	 87.20839631280987	 163.15543390444552
800.0	 65.82155036679522	 158.9072795919414
800.0	 45.57469432895097	 150.23963270995668
800.0	 30.04390959048365	 151.0409331820975
800.0	 14.310502488116315	 145.2969700941407
800.0	 -8.603830848578172e-17	 139.0
800.0	 -13.330331084819715	 135.34512282741883
800.0	 -25.556832184112718	 128.4828717328232
800.0	 -37.73700804307954	 124.40224364518733
800.0	 -48.60079591036624	 117.33270062893348
800.0	 -57.981798629597144	 108.47631551484797
800.0	 -57.223734001018855	 85.64137006716227
800.0	 -42.504350038964304	 51.79170037530333
800.0	 -36.76955262170038	 36.76955262170057
800.0	 -36.331491308048655	 29.816484355691315
800.0	 -31.595845267496646	 21.11166885474499
800.0	 -24.69379540175394	 13.199108631127938
800.0	 -21.24922924775956	 8.80171894439715
800.0	 -14.354105035983128	 4.354270158816948
800.0	 -13.730993925645214	 2.7312645082258604
800.0	 -7.961477813377574	 0.7841371226364967
800.0	 -5.0	 2.6948419387607653e-14
800.0	 -3.9807389066887886	 -0.39206856131823375
800.0	 -4.903926402016151	 -0.9754516100806465
800.0	 -2.8708210071966294	 -0.870854031763379
800.0	 -3.6955181300451465	 -1.5307337294603605
800.0	 -3.527685057393427	 -1.8855869473039781
800.0	 -4.988817673815272	 -3.3334213981176117
800.0	 -6.184083626901917	 -5.075146273309138
800.0	 -8.485281374238578	 -8.48528137423856
800.0	 -9.515899262454738	 -11.595156800441009
800.0	 -10.555834427372469	 -15.797922633748342
800.0	 -12.256315157475903	 -22.92995287305725
800.0	 -14.924653862238586	 -36.03130176794015
800.0	 -14.804518539977536	 -48.803957122342666
800.0	 -10.925058032903348	 -54.923975702580876
800.0	 -7.54731980537615	 -76.62922395375917
800.0	 -3.9685241283249394e-13	 -108.0
800.0	 11.369988278228977	 -115.44142829397484
800.0	 23.215748319918756	 -116.71344836798453
800.0	 34.25359191602643	 -112.91895961640068
800.0	 45.922011883810214	 -110.86554390135464
800.0	 56.09621168229353	 -104.94863045745434
800.0	 68.33513866141122	 -102.27076231321297
800.0	 81.83673365711003	 -99.71834848379328
800.0	 94.04520189781088	 -94.04520189781076
800.0	 108.99447392414564	 -89.44945306707436
800.0	 125.55191145768433	 -83.89110518595993
800.0	 144.63508735312993	 -77.30906483946417
800.0	 157.98340005942998	 -65.43886693443045
800.0	 157.89515539581424	 -47.896971746987
800.0	 152.02171846250067	 -30.238999912500077
800.0	 144.30178536746848	 -14.212485347787034
800.0	 142.0	 -2.7823975276627866e-13
900.0	 136.34030755409097	 13.428348225149973
900.0	 138.29072453685558	 27.507735404273724
900.0	 126.31612431665155	 38.317577397589105
900.0	 121.95209829149003	 50.514213072191446
900.0	 119.05937068702794	 63.63855947150967
900.0	 114.74280649775154	 76.66869215670465
900.0	 112.08651573759693	 91.98702620372852
900.0	 108.18733752154228	 108.18733752154127
900.0	 102.1373187503471	 124.45468299140049
900.0	 98.89150147748998	 148.00159098985253
900.0	 86.73699957598392	 162.27351264009715
900.0	 66.96960066389053	 161.67891818947527
900.0	 45.57469432895101	 150.23963270995665
900.0	 29.263548302419178	 147.1177920604846
900.0	 14.212485347786787	 144.3017853674685
900.0	 3.420345308700352e-14	 140.0
900.0	 -13.526365365478794	 137.33549228076322
900.0	 -25.94701282814494	 130.44444229362966
900.0	 -38.02729272033397	 125.35918398091954
900.0	 -49.748846207461476	 120.10433922646736
900.0	 -59.867385576901086	 112.00400057224141
900.0	 -58.89044470007763	 88.13577890406992
900.0	 -44.40752989145524	 54.110731735391546
900.0	 -40.305086527633094	 40.30508652763333
900.0	 -36.33149130804864	 29.816484355691326
900.0	 -32.427314879799184	 21.667239087764603
900.0	 -25.57571666610229	 13.670505367953941
900.0	 -20.325349715248272	 8.419035512032062
900.0	 -16.267985707447547	 4.934839513325878
900.0	 -12.750208645241983	 2.5361741862097307
900.0	 -8.95666254004977	 0.882154262966061
900.0	 -5.0	 -7.354070601250003e-15
900.0	 -6.96629308670538	 -0.6861199823069073
900.0	 -3.9231411216129213	 -0.7803612880645162
900.0	 -0.9569403357322097	 -0.2902846772544594
900.0	 -1.8477590650225735	 -0.7653668647301798
900.0	 -3.5276850573934273	 -1.8855869473039772
900.0	 -4.988817673815273	 -3.3334213981176104
900.0	 -7.730104533627397	 -6.343932841636421
900.0	 -7.0710678118654835	 -7.071067811865467
900.0	 -10.150292546618392	 -12.36816725380374
900.0	 -11.111404660392077	 -16.629392246050884
900.0	 -12.256315157475909	 -22.929952873057246
900.0	 -15.307337294603688	 -36.95518130045143
900.0	 -14.514233862723088	 -47.84701678661045
900.0	 -10.729967710887228	 -53.943190422177636
900.0	 -7.939388366694411	 -80.60996286044795
900.0	 -4.193852949561687e-13	 -107.0
900.0	 11.075936857240269	 -112.45587411395826
900.0	 22.045206387821985	 -110.82873668556513
900.0	 33.673022561517485	 -111.00507894493627
900.0	 42.86054442488951	 -103.47450764126434
900.0	 54.210624734989516	 -101.42094540006094
900.0	 65.00171726329357	 -97.28194463939772
900.0	 76.12719409963721	 -92.76125440352864
900.0	 89.09545442950504	 -89.09545442950494
900.0	 105.12942165733193	 -86.27748664625615
900.0	 123.05750262077667	 -82.22439448690116
900.0	 139.3435597670398	 -74.4806844185082
900.0	 147.82072520180583	 -61.22934917841449
900.0	 147.36881170275996	 -44.7038402971879
900.0	 144.17543621927481	 -28.678277336371078
900.0	 139.3258617341075	 -13.722399646139241
900.0	 141.0	 -3.1081535762359826e-13
1000.0	 125.3932755606968	 12.350159681524762
1000.0	 122.59816005040388	 24.38629025201568
1000.0	 122.48836297372272	 37.15643868857122
1000.0	 118.25658016144487	 48.98347934273107
1000.0	 115.53168562963452	 61.75297252420565
1000.0	 112.24839766084392	 75.00198145764583
1000.0	 108.22146347078326	 88.81505978291025
1000.0	 115.25840533340782	 115.25840533340667
1000.0	 109.11564487614726	 132.95779797839057
1000.0	 105.5583442737253	 157.979226337483
1000.0	 89.09398326011396	 166.6831189618389
1000.0	 65.82155036679531	 158.90727959194137
1000.0	 44.994124974442116	 148.32575203849223
1000.0	 27.507735404274058	 138.2907245368555
1000.0	 13.330331084820743	 135.34512282741872
1000.0	 6.311192633388353e-14	 129.0
1000.0	 -12.5461939621832	 127.38364501404125
1000.0	 -24.386290252015893	 122.59816005040383
1000.0	 -35.70501530229828	 117.70366129506188
1000.0	 -47.835429045636005	 115.48494156391092
1000.0	 -57.98179862959709	 108.476315514848
1000.0	 -56.66816376799922	 84.80990045485976
1000.0	 -46.31070974394616	 56.42976309547977
1000.0	 -40.30508652763308	 40.305086527633335
1000.0	 -37.10450176141138	 30.450877639854983
1000.0	 -34.090254104404266	 22.77837955380382
1000.0	 -24.69379540175393	 13.199108631127949
1000.0	 -23.096988312782127	 9.567085809127349
1000.0	 -17.224926043179753	 5.225124190580345
1000.0	 -15.692564486451671	 3.121445152258134
1000.0	 -9.951847266721966	 0.9801714032956259
1000.0	 -5.0	 2.9397712985902356e-14
1000.0	 -2.9855541800165915	 -0.2940514209886739
1000.0	 -0.9807852804032303	 -0.1950903220161288
1000.0	 -1.9138806714644196	 -0.5805693545089183
1000.0	 -2.7716385975338604	 -1.148050297095269
1000.0	 -1.7638425286967139	 -0.9427934736519882
1000.0	 -4.157348061512728	 -2.7778511650980073
1000.0	 -3.8650522668137	 -3.17196642081821
1000.0	 -6.363961030678937	 -6.363961030678918
1000.0	 -8.881505978291095	 -10.82214634707827
1000.0	 -11.666974893411684	 -17.460861858353425
1000.0	 -10.842124946997924	 -20.284189080012176
1000.0	 -13.776603565143326	 -33.259663170406284
1000.0	 -13.933664508214175	 -45.93313611514603
1000.0	 -10.33978706685498	 -51.98161986137118
1000.0	 -6.371114121421457	 -64.6870072336928
1000.0	 -4.3309948216470923e-13	 -104.0
1000.0	 11.76205683954716	 -119.42216720066364
1000.0	 23.801019285967072	 -119.65580420919423
1000.0	 34.25359191602638	 -112.91895961640071
1000.0	 45.15664501907999	 -109.01778483633208
1000.0	 57.51040189277147	 -107.59439425049945
1000.0	 68.33513866141116	 -102.270762313213
1000.0	 78.0303739521281	 -95.08028576361689
1000.0	 93.33809511662429	 -93.33809511662425
1000.0	 102.81039029724371	 -84.37430679376521
1000.0	 118.0686849469614	 -78.89097308878357
1000.0	 138.46163850269141	 -74.00928768168222
1000.0	 155.2117614618961	 -64.29081663733525
1000.0	 155.98127472434982	 -47.316402392478146
1000.0	 149.07936262129098	 -29.65372894645176
1000.0	 143.3066006407963	 -14.114468207457538
1000.0	 138.0	 -3.380025165646695e-13
